# .PCD v0.7 - Point Cloud Data file format
VERSION 0.7
FIELDS x y z
SIZE 4 4 4
TYPE F F F
COUNT 1 1 1
WIDTH 1584
HEIGHT 1
VIEWPOINT 0 0 0 1 0 0 0
POINTS 1584
DATA ascii
-18.666264 36.078445 132.69791
-17.237038 16.039762 0
28.719589 26.401371 118.11034
21.337934 23.825764 36.129665
-27.311008 -11.505321 33.131332
2.5686378 -40.605232 133.32846
32.562519 -26.424614 126.40333
-13.789354 28.935064 36.805565
34.277084 -17.954983 97.023125
-2.4051838 40.026131 109.72397
-1.6860178 -38.819118 98.471512
-24.899158 18.970198 48.246429
-8.8503017 -38.501514 122.59187
36.844936 -0.80568099 80.282944
23.200382 -29.850773 88.976364
-14.191015 26.949833 22.327711
-1.769309 4.5473633 0
-5.0339184 -36.524426 80.44046
31.154598 -26.593851 135.82321
-32.519119 -7.9032068 49.595764
0.26346743 38.100426 109.90343
-10.663147 33.239113 80.900185
24.971954 -30.943439 124.96768
-20.393324 -30.011158 93.380608
24.352324 24.482601 77.506027
36.604359 -8.9820929 87.924881
24.755337 -23.065983 71.211227
5.6390777 -34.626141 82.476562
0.75693947 10.779293 0
-36.549191 -6.4343967 100.88614
-25.670118 30.744223 127.57458
18.033659 -20.095711 9.2580509
27.379086 26.537151 91.891907
-30.541861 -15.625754 75.473389
-35.905079 -19.653318 135.5293
-27.53755 -19.609005 70.941902
33.297344 12.328154 86.323967
28.8932 -27.709858 109.11473
32.495304 22.813595 124.3644
-39.498177 6.9299822 109.75606
-13.556971 28.141258 29.396336
-36.997017 -4.6502776 102.4657
3.1195011 2.080909 2
2.3294928 -33.436729 68.295731
17.856314 31.998802 78.435234
-41.607723 8.3276606 130.91695
31.681377 -5.924068 38.356731
-5.6775808 -24.41007 2
-15.047859 -15.313117 2
-1.3730676 -34.334011 57.729927
7.5002456 -37.728729 94.909225
27.856718 3.900265 1.2287484
33.851273 7.0504761 59.704121
-35.802925 -12.190871 89.050888
20.316288 -27.286747 54.611923
-28.461678 2.9040585 5.6043367
-11.902262 40.308857 127.23911
16.568321 33.03944 81.31546
-2.8652036 -31.872166 54.54454
-15.170166 -24.076731 22.394201
-24.376476 -26.182863 70.482475
6.2837148 34.198406 61.447929
-19.27177 -32.09623 85.588448
-4.9392872 -40.763718 118.45546
28.344353 4.1692371 24.149342
27.142681 -23.604792 72.2883
-1.409261 -27.388567 13.064989
-14.688017 -38.884502 123.02748
-35.117046 22.537027 124.50688
23.719883 -16.531128 26.522509
10.433351 -24.653229 7.1524863
-36.069984 3.3757496 92.889175
-0.65857387 -32.604202 41.850903
30.155043 -25.128391 120.27396
21.526081 17.118752 13.775531
-32.256607 -0.4014 56.913158
37.204651 -6.2822752 106.54956
-4.7088394 -27.032032 13.215163
17.135796 22.785084 4.6526685
25.702494 5.5345926 2.8360443
-1.905231 -32.657566 42.76709
25.87295 20.750034 46.846794
-36.662968 18.209547 135.55104
-8.9804659 34.137394 66.180031
37.549034 9.1795225 96.669739
-7.8678212 29.01799 18.74617
41.327263 -11.136982 134.27618
-32.93927 20.641773 116.88423
-26.944267 30.480556 115.02882
4.6077018 33.841049 55.854279
-26.956514 11.038211 10.257892
6.5525351 19.138119 0
-2.5720782 35.206791 66.259529
24.44372 25.63895 67.353745
35.82917 -13.665097 112.09018
-31.721931 -18.177265 77.679947
-28.150352 21.252411 65.982956
24.701508 -29.579149 95.580063
-31.306185 9.3204374 60.563023
-13.883293 -27.914906 47.09882
-6.143054 8.4769287 2
33.872383 -16.956779 107.89548
5.3458815 -39.843231 128.93745
-28.510159 6.8330798 30.246122
-27.271183 -18.972488 47.382607
34.746716 -21.425894 134.57129
33.548397 23.202633 115.98818
-26.014912 -4.9599667 4.5714264
19.886713 -21.787125 13.617012
-13.356012 25.011059 3.2753859
26.700344 9.1936817 20.439432
-32.30106 5.2428737 61.112278
-36.175766 2.5814929 75.015236
9.2830305 11.061777 0
24.294621 -17.388681 35.298275
-35.73407 -5.0499916 73.408981
2.9454436 37.702888 89.050705
-24.378939 25.712189 67.433823
5.8764491 34.829262 66.44059
-12.911849 -25.67749 6.7453051
3.2045445 -40.620991 133.85193
5.7637324 -40.719818 119.03429
21.128719 -33.03754 101.72089
31.345301 10.003537 44.458351
-18.032425 -12.152103 2
29.863895 -14.944481 48.951118
-19.52602 27.241634 68.329399
26.350458 -30.891176 132.51221
-30.824446 26.638544 133.783
-31.800709 -16.740438 90.285248
1.7502888 -33.2784 66.584961
-28.029707 23.428379 95.669601
25.867744 10.061857 16.083769
-25.878023 14.289064 32.404774
-3.8145556 29.058657 30.135248
20.20577 -31.084995 100.54502
33.892719 22.390392 114.46113
-21.732313 -7.3091927 0
7.9916849 23.769802 0
-5.634243 -35.148266 87.194481
1.72474 14.270902 2
-19.831839 3.3140433 0
-7.552053 25.130653 2.3499973
-13.577539 29.053291 36.954155
-34.366394 -17.975933 116.09296
-23.057831 13.932778 8.6893406
-33.781525 13.985232 77.697433
-35.674694 -19.139669 113.22186
-31.886993 -9.1875534 65.307388
28.627771 -3.904211 26.371815
-33.180939 -14.476161 74.362885
-26.644913 6.2633572 12.603072
-28.741337 5.6573544 30.022373
27.601379 3.9661531 17.220716
-34.732544 -2.1918042 79.981705
-11.359499 29.2572 30.729996
33.28537 -12.710628 69.240334
36.596394 11.239205 93.289864
27.211687 -20.636772 55.831764
-30.633587 -28.360746 124.67589
25.825771 -18.466764 52.277313
7.8870239 -26.471001 14.851884
-26.507965 27.068888 107.91583
-25.928875 -12.092202 5.5376167
36.247929 12.195011 92.952682
21.56175 31.382841 91.381119
-31.247183 -15.545916 62.615681
18.892532 -28.373028 55.257629
-35.25956 18.688644 107.97002
39.220104 11.837246 117.60678
-18.095171 -34.476017 117.45102
21.785009 -25.257961 66.824783
11.185949 32.29237 56.046219
-30.721092 13.606997 50.803154
33.823769 19.790985 101.51277
-1.5028248 8.2198467 0
0.82870495 28.302818 2.9000525
-9.1863194 -33.098427 75.852081
22.716236 26.735405 64.282486
-34.224976 -7.1615438 63.166107
0.6560396 35.036652 63.910217
12.651619 -31.828894 56.742294
8.8454533 32.965061 55.649773
31.413155 27.026611 121.88608
-3.4662824 -39.337177 122.45981
-35.7813 -12.76241 108.8454
-27.692343 -15.908645 53.995636
26.838825 21.309925 56.883286
19.352238 -27.342413 49.896629
16.676729 23.61039 8.2769728
4.2568426 -34.298271 59.540577
39.095688 13.0062 119.72725
35.141514 -18.263147 123.48896
-38.766277 -9.4326944 107.90196
-20.035208 -20.299456 4.735568
-37.564091 8.0660839 112.72569
0.44451496 33.74498 70.424423
31.612415 -19.787355 102.56802
-17.589693 32.212616 78.920013
19.8923 21.904095 32.695984
1.5447087 41.016216 118.30781
-7.9285727 37.933338 115.81026
-33.87677 15.261432 101.26563
-31.185595 -18.060562 72.923096
34.648899 12.613386 80.452126
-4.5458703 28.102118 4.260293
34.678829 -1.1788478 79.039139
-16.564177 -2.4035025 0
29.524979 -3.1739244 33.618332
-33.045879 -24.582088 119.5901
-20.342859 10.564696 0
-0.59272021 -39.520847 104.52097
28.876291 -14.487774 39.085541
-20.086473 12.329268 0
26.914467 22.874992 66.448647
26.028448 23.377846 63.395958
40.600044 -10.808641 127.11382
-37.631538 -9.9050179 99.005341
22.162203 19.219234 30.397869
-29.530519 5.0317111 35.979595
-7.4216909 -18.354563 2
-35.585133 17.579983 124.27291
-17.602552 -27.433121 41.717285
32.523987 1.473183 41.379372
35.254818 4.3804736 86.548386
-26.819588 -1.3742948 7.8638048
-25.480625 28.229002 109.20674
-12.521311 36.940975 99.843788
-29.070183 -8.3392134 38.633476
16.002232 23.937054 25.462137
7.6145859 28.549923 32.333099
36.967827 -12.673985 100.53334
8.4890289 -40.390862 120.36572
5.4936805 -36.462517 98.749664
-32.574257 -13.67318 66.495476
-25.774939 23.616858 63.106846
8.5247965 32.814007 53.586533
9.8573208 27.467382 10.740188
-19.136707 -37.082294 124.49452
-16.737356 31.672375 70.993622
13.009165 24.933201 19.395472
10.503636 -5.622704 2
-19.644119 31.14011 80.02356
-30.25246 -24.637754 99.945099
-40.839092 -4.1485968 118.35179
38.315929 18.549328 132.1076
-13.551466 -33.746132 94.135925
-14.521389 -7.8817058 2
-33.179031 -4.9533949 68.601395
6.0667992 -39.480591 126.57277
23.068493 -18.553669 32.842415
6.3035984 -41.144012 123.57655
27.116829 18.400215 61.555
-23.986542 30.749985 118.04506
-13.579787 -30.146162 45.923573
7.8073649 33.624275 77.409607
13.924507 25.800512 11.966438
-3.0960884 35.132744 65.930756
-30.483894 -4.872479 26.057806
-35.126076 15.029497 92.575821
5.7879744 38.032066 113.21448
-37.497154 6.607461 91.39975
-39.741516 4.0890942 126.681
13.733418 -34.837269 85.716782
30.584284 23.835108 115.98747
-15.214254 -26.591749 42.164135
17.911766 -29.077797 55.832203
-35.145531 -20.41972 132.99094
35.59663 20.037769 134.81415
29.344175 -16.990303 71.822678
-13.305087 -39.147835 121.03591
-31.282175 1.3872391 48.292809
2.4536781 13.81967 0
30.274586 -11.700428 40.471169
-38.639336 0.89564312 96.630066
35.448235 3.0638225 87.04361
-15.426182 11.582886 0
-3.6043842 -36.119705 93.516891
3.70962 -31.218939 49.432629
2.1578484 26.60881 6.4839907
6.3432384 -26.432724 10.871777
20.045254 -22.708328 20.791389
17.480825 -4.9583454 0
-0.81054276 -42.562786 136
30.089878 -19.221367 69.922256
-37.853592 11.436076 104.69063
14.922332 37.08477 126.8821
-20.529739 -1.8703341 2
-4.565114 -32.362232 60.717308
-26.995083 14.097281 22.288958
30.760124 23.277466 114.15971
-17.273319 31.096054 86.94162
-42.204384 7.9354053 135.49905
15.165959 37.137035 128.16064
-7.9186263 -36.490082 84.689896
19.324492 25.441933 35.818768
-23.24457 -17.436663 9.5998058
-18.179823 -24.100628 38.102879
31.645428 5.3038869 37.114765
34.678551 2.0015295 61.098263
25.897839 -12.383021 24.653078
21.64336 -24.130585 58.3344
-28.162394 13.335649 28.686945
-27.175295 28.233173 101.49982
-7.5998135 33.754314 78.077187
-29.651836 -21.634207 97.184891
7.0692616 33.91283 78.492645
30.958858 7.3005261 34.554672
-18.05271 23.02891 11.47993
21.226822 29.586649 76.350281
-7.9221964 34.656593 86.72245
14.604422 39.415573 136
-37.388023 -1.3056482 103.61079
13.362902 37.393002 106.22375
10.234786 16.39838 0
-24.567818 -16.491917 14.442698
-27.051098 -22.953497 67.823593
40.66407 4.624404 135.49045
8.9372129 27.682196 28.174696
-13.015408 -38.715282 116.49323
12.325333 36.032837 109.67754
33.488014 -25.19236 126.1246
-24.608521 23.9832 57.725815
-32.158489 17.035805 76.121918
-5.4675117 -27.928589 22.43306
28.058184 27.303825 101.1598
-27.856586 -21.911034 67.515373
-6.4238873 34.348434 63.009022
22.675327 24.261211 47.282486
-5.7433481 40.272816 114.98717
-19.474543 -20.24313 0.87551188
31.813999 -7.5122137 42.543713
12.111931 28.78764 47.598797
-41.049343 5.2291775 121.36614
-25.374557 27.598488 86.083672
-38.985931 -0.57843268 117.95944
-26.005291 -21.135418 50.025726
23.533768 21.462395 34.974468
36.754601 -4.8508291 82.325012
-29.059923 28.600708 115.84529
-26.244373 -25.433548 77.540031
-16.990841 34.671574 114.52634
-40.117397 -2.7943411 129.06282
37.262672 -0.73972082 84.052979
0.60279101 32.429592 58.511211
5.4460397 -27.468824 0.056660533
-4.1316414 40.723526 117.27802
-40.59343 -2.971107 133.47252
6.5176716 -36.455818 100.22404
-26.690388 -31.96999 123.75328
-21.126484 29.302124 73.66761
-4.365211 -31.742428 54.885849
29.837372 16.397152 73.127686
11.352466 -36.764511 95.067917
-36.449623 5.0899401 79.882919
-12.521626 -39.923073 125.53844
6.3525329 27.622999 3.1889853
-17.547031 -35.316956 121.99702
27.183971 -21.120377 58.311493
-26.018059 23.395113 63.409363
-25.622189 15.851163 37.575336
21.039299 36.140446 125.34124
-6.4543638 -37.251953 107.20522
-25.426359 -8.4325523 7.2635937
-29.839615 -14.206983 45.815414
-20.816357 20.583519 29.852625
-21.679539 34.979931 119.27745
-13.814577 29.605808 42.402706
11.909513 -35.959351 107.86666
1.329044 36.252773 75.079491
33.66555 -4.0424151 71.864525
-13.027165 27.566233 22.628231
-22.976156 26.495499 82.406471
-14.023401 -32.671318 68.551506
-0.77972698 -34.417099 58.317341
10.259394 33.238068 79.828003
31.19842 26.481506 135.45335
-38.719147 11.573107 112.55698
27.150713 -14.439979 43.213619
31.446407 -7.5927024 57.710926
36.803722 13.031239 100.17023
-24.157951 29.646389 92.93869
-11.04377 16.688938 0
17.533251 -28.257517 47.690735
32.669979 1.4846337 42.706463
-40.249264 9.6461182 121.41749
-31.760735 27.88929 129.37383
1.6138935 39.990715 109.04826
25.53022 11.942354 1.7574006
-37.014156 -3.0584021 82.874252
-41.522114 -5.7696495 126.23411
37.461403 12.184442 103.3342
5.5021811 -40.000946 130.54793
-0.71269035 13.040623 0
-35.318737 17.587975 122.12105
-20.141205 -3.2882383 0
-14.862895 35.86182 116.36239
5.6667409 -31.357264 53.351818
-22.319618 -30.965189 110.53414
-2.8709049 29.389999 13.911643
-16.971151 34.167919 92.038681
12.475962 -30.214485 60.82164
-33.771374 22.037037 111.7715
-25.507683 -16.523695 39.987961
27.408989 14.561201 27.587994
-2.6145208 39.837856 108.16099
24.146458 26.953194 92.546906
19.299917 -27.153534 66.443748
-20.412365 -19.460585 1.9126157
-0.73731673 28.088411 19.163336
-30.897621 19.022509 75.17543
28.679928 3.2793732 7.9060364
-5.3684959 -31.010651 49.760227
11.2323 31.632971 68.78688
-34.572926 -5.2717652 63.275566
-10.61779 -26.064209 19.589165
-3.7755032 -40.522556 115.16066
18.654221 -19.9006 11.693649
17.896009 -32.892487 85.709183
-1.1700088 -31.879028 35.42038
-13.845722 -30.413361 67.383484
36.526314 1.2155812 77.548378
-17.282423 -25.235193 23.499199
-19.488171 -20.283506 19.447004
29.432081 -25.69927 100.40163
-5.3798904 -29.112072 14.606974
-11.928961 -32.140438 75.247307
25.240356 32.731094 120.91032
-14.678913 -26.995842 24.76408
24.414238 16.869637 33.4664
-5.6713295 41.472725 125.70851
4.6957378 -21.593311 0
28.119484 -0.60577261 1.2202928
-17.215954 21.587193 14.739868
6.0699158 -28.396368 9.4788742
-21.557056 -32.293377 116.47679
24.463902 17.400543 18.356775
20.250156 -28.459942 62.880531
-28.598104 20.291704 64.069344
-15.694994 25.401516 16.897358
-0.53302133 -36.310177 93.650558
-1.7180858 -23.20829 2
29.053043 -28.321234 132.28664
-26.621334 1.2525699 6.0362186
-23.595976 28.562014 100.31153
-22.955778 -18.351412 30.850742
-8.6909666 -38.040325 99.970322
29.046421 8.5099049 38.847538
-2.5632801 32.027256 37.494122
39.894341 -13.02227 126.67338
0.86476755 -36.617363 96.511902
-27.41046 26.096643 89.348297
35.212471 -2.8033216 84.71373
3.3899441 -27.833773 18.618876
-0.46684125 38.91901 99.036697
23.499767 -34.245064 122.74281
6.9202147 31.045183 34.576714
20.977247 -31.978394 92.955261
11.358675 -37.41774 100.74747
8.7408791 -37.303528 111.81997
41.223503 -5.344995 123.04388
-26.414082 16.502813 28.575336
6.583992 -35.015736 87.48085
5.2583427 28.612223 9.9323254
-34.173832 -18.513287 116.81984
-41.418858 -7.0697441 136
-3.7025332 -31.195454 31.008875
26.717377 -16.33099 30.070606
0.24899666 -31.877048 53.467037
-11.510849 -22.063444 0
-33.211975 -19.309072 94.491638
-9.9376287 31.941799 49.453552
-25.57308 -12.584989 22.835989
-38.393883 -0.6667248 94.36203
-8.5929909 -19.89205 2
9.4711475 -28.768787 39.025208
-7.9164128 34.320198 65.527039
1.1949248 30.869347 26.254583
-5.1040845 34.703545 64.220581
-10.702713 -28.382944 39.454559
11.166267 -30.967939 44.659058
-34.76038 7.8398976 69.275856
28.935083 27.53087 126.57751
4.2168903 -36.987949 83.666794
-33.515911 -8.0435562 76.949577
-27.39167 25.385284 84.781715
24.254986 -14.95388 22.761253
23.361828 -27.239868 71.565697
-1.322783 30.14584 19.763237
1.2188046 -36.32724 93.941338
1.9966098 -35.882626 90.286789
-7.5514793 -32.917568 52.386059
-14.782047 25.590061 14.102613
-26.595627 -6.5230484 12.722817
-31.617887 19.086735 99.261154
-27.440258 -25.956244 88.667458
-33.082668 21.282337 102.80864
3.3058853 37.255043 103.55164
28.936914 -21.065735 88.966766
35.877357 -21.430477 125.05446
-1.0481884 34.854141 62.353935
35.130051 8.07162 91.224045
0.994717 -35.561802 68.703651
26.172722 11.649 24.184431
-9.0112228 -36.053661 83.1334
-0.065719351 28.013672 0.17828885
25.472944 18.666805 50.769218
0.6968075 -27.886438 17.314192
3.1487465 -41.609341 124.52163
-3.4623289 -39.080193 120.13295
32.937469 -7.7347383 71.141052
-9.9859333 4.5162654 2
7.9010196 -27.673359 25.328634
16.067816 22.367224 14.127327
-22.230042 -34.726765 120.00627
-37.898838 -7.8443904 97.041267
-30.443237 -9.574832 35.541142
6.8632441 37.062019 87.935097
-11.358398 -29.607353 33.702354
-32.863739 4.8984184 65.699944
-4.825716 -15.410658 2
31.361607 23.510227 119.80696
-26.410007 20.164175 65.707779
-1.1725786 -42.231743 129.19537
-12.136847 24.411249 11.566628
25.070305 -20.865953 60.119717
-6.1739283 -26.114532 7.7369485
35.346268 -1.7934762 85.321533
2.8672793 -31.261059 30.812
-19.97858 -24.941244 35.909466
36.809715 -9.2746582 90.378166
-10.190907 -36.37936 106.96672
-25.535063 -21.639484 67.906693
-30.677538 -23.429207 96.146675
27.068974 -20.673281 55.009274
-3.6349139 -37.14373 84.542892
-10.345871 13.691953 2
26.487789 -1.1575794 4.8290405
-13.907631 -34.731121 85.344254
-23.535934 -16.068771 4.5630078
34.270901 -17.985296 97.103767
12.128957 -29.770306 55.899578
35.824429 19.469898 115.8516
0.44730383 -36.310387 93.688507
9.0086069 35.304546 94.77018
-21.918621 5.9408937 2
14.280287 31.237644 75.856865
29.279594 -24.739304 93.746407
28.223782 22.833862 93.599457
-33.807549 12.406885 72.711899
-19.963566 32.94635 95.411041
-36.317284 11.197628 90.765236
-29.720257 -14.790477 65.377182
-16.090099 36.632133 127.2137
41.019127 10.023718 129.01186
-26.833376 -22.406757 63.10421
-34.408653 1.3784621 58.36166
29.148342 -15.592715 64.126312
32.391144 18.158384 82.828018
-31.55711 -8.1329594 59.848267
-23.385237 -27.295225 72.01606
33.49461 -6.9095793 56.277119
4.2791166 -28.430716 6.8426065
-19.647425 -34.447044 123.93939
-30.944515 6.6839085 33.201797
34.967445 24.21452 131.81857
-13.835428 -32.188828 82.105263
38.130806 11.993545 108.56488
-34.568043 -0.33222723 77.856941
-20.121712 29.700727 71.451248
22.239166 1.2804103 2
20.311483 -31.917114 107.45187
-8.5517607 27.480904 7.1368322
-38.947365 -2.2249246 118.14696
-11.82611 -30.170784 58.251198
32.294079 -9.133604 68.671326
23.000389 -13.582449 6.6278791
14.735491 33.811363 98.782104
35.175056 11.379377 99.592484
-39.231827 12.905165 120.60882
-4.967577 -1.633356 2
32.808029 -10.687279 77.229149
-35.848839 -21.704742 126.13165
38.235508 2.59746 93.638374
-18.165039 -22.11824 23.905834
-28.480452 -23.136496 97.110428
35.487514 5.0127983 89.36525
-13.536392 -27.785496 44.665985
-27.137112 -5.4560914 15.391315
6.0285492 -37.118721 87.12677
-35.069756 4.2608299 84.713356
-27.785646 9.6813145 12.931368
40.858391 0.58196479 116.64855
18.438023 36.56414 117.4492
-23.679062 30.825613 98.62191
-31.563789 2.226311 33.071255
-38.412712 -13.70015 115.93309
21.617628 23.769045 37.480984
-13.053461 26.122246 29.179565
-18.444206 -14.226651 0
-28.633591 -9.2434311 19.000357
-8.5405617 9.6997948 2
-8.8624401 -30.35294 51.13126
29.881405 -6.3372459 41.388451
19.002148 28.113815 53.847244
-4.6307993 40.941425 119.7383
-34.225365 -4.2148614 77.054344
14.608347 30.476658 52.588478
-0.042009972 -32.8592 62.345604
-5.5335331 -35.613525 72.972488
24.454021 -20.58144 35.986366
37.068069 -14.089218 123.95091
-30.53841 -4.6126246 44.460403
-15.014851 -39.319344 127.7561
-19.533497 28.982098 81.301804
-38.118149 -3.4727535 93.218193
26.766497 1.7227058 7.6171532
32.036217 21.65419 115.04268
-12.901773 32.841152 66.077286
-13.84741 20.237469 0
8.432539 -31.214437 57.597984
33.130535 -0.94393331 64.920609
37.652397 -15.203097 114.31564
32.201843 -4.9962683 41.636593
-6.6604805 -42.308167 134.46468
15.153656 -24.873793 10.230455
17.11689 -28.326672 64.484825
-8.4451809 41.50951 130.22203
-28.37694 27.751602 106.02982
2.1340265 16.896532 0
37.876591 3.0427318 90.725945
-31.682013 -9.7395229 64.91169
23.203957 -13.859849 9.4823217
-29.997944 -30.127911 131.66852
-2.2671299 35.053894 64.678085
34.520367 -9.2293396 70.144127
-28.446136 4.1884909 25.114824
21.764662 23.443178 36.225933
-35.859306 -15.74378 119.50454
31.098845 7.3632503 54.138432
-34.176529 -16.81744 109.76762
-11.335231 34.023819 71.352203
-6.1051555 40.065712 131.90538
-22.852531 -17.589947 25.899275
-31.485323 9.8810377 63.615547
-20.971558 28.817375 69.291389
23.158089 29.115305 101.72083
21.756725 -31.486361 93.140274
-23.423944 -17.07262 27.192932
-37.828156 -15.232228 115.9046
-25.14159 10.891443 12.846544
-19.94622 -27.854362 75.06572
-1.530118 12.160753 0
-30.710299 -16.723551 81.465538
-13.307678 30.078188 44.36554
12.053225 -23.891262 7.0649781
31.797024 -5.4529428 38.692066
-27.682613 4.5176682 0.51502335
9.5899134 23.665462 0
-26.04516 28.084249 93.420074
-14.629129 28.517624 36.77977
-4.0942669 -34.086403 57.463547
-28.954315 -3.9014351 29.295414
-28.960384 -18.52486 76.143539
28.965599 27.766949 109.94805
35.265648 2.885864 67.011368
26.195795 21.179342 69.865379
-11.620314 -37.830204 104.95069
-25.750977 -22.03623 53.472878
-4.2925367 32.200802 58.938553
-25.581917 20.6451 62.452297
-21.490356 -22.055565 43.593369
1.8506317 -38.354259 94.354721
-28.840649 -11.057734 26.207563
6.5155106 28.902092 33.054287
25.914009 -23.458952 81.317207
-20.93247 27.091427 74.847046
-0.39594012 -33.00071 63.613384
5.5820675 2.5686603 0
6.6386805 -30.474964 28.982117
37.112137 16.37631 132.23773
30.394939 -12.852333 63.585102
-25.387585 15.559973 34.358639
-1.6863286 -28.377365 3.894635
-0.37657019 36.833626 80.109566
-28.515003 30.625465 125.5872
1.4266711 39.047291 100.434
14.503191 -32.366367 67.770782
-34.462055 -15.48471 106.92903
-26.731594 11.403277 9.6861334
15.315988 13.201707 0
-39.569988 4.516572 125.54212
27.027672 -19.829247 68.373001
-42.640549 2.145864 133.28976
41.178417 -8.940567 128.21838
-6.1031179 -11.119785 2
18.655157 38.729027 135.96103
-11.517813 -6.2833881 0
1.0788107 1.7829566 0
-30.968338 -8.5300331 55.673164
17.07119 -27.642811 40.752136
-30.890007 -11.880295 46.216206
-25.136551 24.34137 63.434635
4.3710551 34.443352 60.98214
-11.364931 -30.2071 57.049809
-3.2547941 29.644772 34.825653
-19.068079 28.01511 71.653397
-26.808985 20.895683 72.61409
16.18849 -37.397652 115.63074
36.08168 -20.415916 122.05972
27.87685 1.3210988 17.458242
41.78933 9.1224651 133.99995
-4.950376 38.710796 100.00826
-25.751171 30.993057 111.52417
-29.702831 -16.481863 72.368172
-2.2495475 32.500641 41.571739
38.250183 -1.7768612 93.377075
-25.240412 -19.474842 35.180828
32.750191 -24.524479 135.40083
-1.02215 -10.415936 0
37.971138 6.3040938 95.190948
-27.788853 -15.120302 32.996288
-7.6809344 40.810093 122.66646
7.3723207 -5.5379624 0
-14.295013 30.725708 71.650208
15.699188 -26.960825 47.290146
3.8387878 -38.498589 96.983322
-25.339558 -14.484291 29.047112
-27.580509 -14.009239 44.88055
-9.0747147 -27.673136 28.473484
-24.371635 24.090633 56.839317
-12.572062 -30.964153 67.401756
31.133282 20.50893 102.45841
5.7392778 -29.380907 17.558254
-37.395184 5.0093365 88.264618
1.0288839 18.286079 2
15.242058 -23.165234 15.825696
35.343975 -14.152293 109.64008
27.497272 -16.832743 38.472836
-12.763365 25.604198 23.796814
-35.079731 16.893349 99.168358
-20.712339 -20.219034 8.6298943
25.413269 -17.155172 24.15703
25.623598 -17.851555 29.320507
-33.599075 1.8671992 69.537125
-13.116123 30.18545 44.58416
29.0853 -18.580248 59.115276
17.558962 -36.591305 114.13761
-15.535944 18.915392 2
-28.125389 -27.628681 121.91285
8.7304516 3.8167031 0
-35.225491 -10.50525 79.426392
-11.80324 -34.867775 98.207382
-36.819 -13.447018 119.83589
-5.7155046 -35.533852 72.51165
-33.316689 -7.237668 55.293266
-27.999533 22.53796 90.283554
32.803532 18.950699 107.88017
36.324001 3.9451585 95.6689
3.8752773 35.602875 70.865761
20.610569 -23.588932 48.437531
40.23048 4.5038366 113.19353
-27.933449 -17.906258 46.992107
-29.004364 24.411921 89.86425
24.705688 28.194363 104.32607
7.9937944 37.01236 89.520531
27.449524 -2.6078496 14.410274
32.767086 1.5875665 61.873631
19.597614 -3.5411546 0
-37.783417 -7.5420942 113.7731
-23.773939 28.689304 102.23716
-11.262307 27.015728 11.574924
-30.949982 -20.349463 82.006363
14.901393 23.57692 17.309649
35.334019 16.940796 101.4839
-30.020645 9.9110632 51.076145
-31.944191 1.6510228 36.194084
14.724492 36.438122 102.53089
-24.750969 11.682756 12.587022
33.590736 -24.371855 122.44252
-20.172331 -35.435982 134.08032
-3.4327443 -40.442177 132.43111
-20.063885 34.924057 111.36613
-28.309143 -10.915011 21.249475
7.5562491 31.894352 43.333282
-32.742832 19.170399 90.167686
-20.420456 -27.694843 58.155968
38.847687 4.5339217 100.80914
19.346619 -28.379421 75.853104
26.438589 15.421473 41.890251
-2.0859716 -34.259201 57.372055
36.631493 6.3155584 101.4762
9.7791176 -36.373283 105.94789
16.718288 36.47578 109.97264
30.572245 -20.697327 99.183044
-35.644005 0.53550643 87.651115
-30.25663 11.019509 38.149101
18.807165 30.7036 72.650116
-40.573715 0.64052606 114.09187
-13.973178 -30.921711 53.806751
-27.744291 7.1224737 24.106625
-39.368061 8.0674505 128.78404
6.162488 -32.665314 65.825546
-29.228765 5.2634044 15.427288
-2.0146515 -39.004509 100.24762
7.3508453 -29.213261 19.287815
-16.655994 -12.137077 0
-35.680176 12.304095 88.351074
-12.261583 -36.581825 114.26321
0.48049167 -30.09437 19.085175
-23.914349 -19.490589 44.13398
0.74207777 36.390343 94.441528
-25.760338 14.916828 34.326637
-36.934353 -8.7553577 90.349495
-0.062538944 -28.661295 24.258579
-25.414732 8.2722826 6.7104154
-15.105759 -27.748655 50.889893
28.687008 -26.765598 101.91022
29.014004 -30.416138 127.30048
-8.1538591 30.598129 33.257168
-15.373566 -38.340919 120.70666
-12.294402 -23.870497 7.8746347
6.9266758 38.584259 119.87814
34.851177 -13.620422 85.461662
29.653656 -29.419094 124.8819
3.5651338 -31.842068 54.906349
-21.881266 -17.910822 20.780609
-5.8406954 -3.0698082 0
18.555531 -0.68330079 0
30.500643 17.562555 65.287102
18.12418 31.964609 79.334625
-35.526279 11.075893 101.81396
3.5111742 -33.098816 66.205894
-26.429062 -11.037962 5.8620019
23.983202 15.906578 25.352793
28.815023 -30.732124 128.1088
13.449255 -26.278976 13.841614
-16.278648 -22.432144 15.69236
34.016655 -18.340235 96.595184
-35.777462 23.236088 132.99918
-8.4542971 -26.950687 20.4744
38.965733 -5.5764179 103.03046
31.058125 3.8512063 48.188759
-33.259892 -2.4756515 66.816299
6.4744396 30.04689 24.873741
-40.469868 -6.1759725 135.63115
26.705276 -20.250654 68.274162
-25.024754 19.847815 35.777805
5.2217655 -32.93507 66.723015
-35.640869 13.57161 110.22729
29.269255 -5.8155251 16.713905
29.366804 13.437777 57.243889
30.630682 -15.755711 58.454556
30.031351 18.797735 67.387817
-14.909718 -32.891029 91.836151
27.997272 -15.353756 35.690582
-30.667784 30.116116 135.91985
12.318943 39.093262 117.79012
30.123968 3.4820309 39.362354
36.134579 -17.187555 108.97549
-30.681931 -4.2164907 45.219574
-6.6697159 -38.834373 103.41257
40.703323 2.7378016 134.28166
30.447899 -4.4382257 25.119976
-28.977924 26.096231 99.739777
-34.496059 4.3310771 61.3638
23.562378 -30.374222 112.94532
29.439932 -26.250444 122.05497
29.857346 -1.599968 35.514378
19.672989 24.034311 46.04258
-28.534481 -26.020821 114.58463
-20.082745 -23.707064 27.855362
37.488125 5.4072318 89.546402
12.371 -29.067348 32.564621
-20.558311 -27.312176 56.140076
-18.377148 4.4328003 0
34.569206 -4.0189052 79.967094
-19.897314 28.932974 82.757042
-22.779991 -19.781105 19.73278
-23.319519 -22.655836 40.96035
33.542732 -8.5775108 78.351906
-0.66038483 42.194416 128.80231
-24.826107 -34.634857 132.56595
-34.838562 24.70775 133.45229
-6.975666 -39.409374 127.27035
-14.889462 24.819069 8.6002073
-40.453701 3.5875187 132.625
-17.345076 -37.581093 121.43147
-29.524326 24.103872 109.99965
2.5163436 40.281502 130.37178
-20.424454 -19.441029 20.074203
-15.808381 -1.3541939 2
-10.246954 35.251289 79.039062
-9.6850281 41.075603 128.78075
33.410091 0.30295891 67.362106
13.094902 19.513647 2
-22.894022 -27.749453 90.573914
15.160818 -29.615675 66.097687
-42.561176 -5.1396513 136
12.457404 26.004164 7.5672822
1.6112871 -15.461885 0
-16.951784 35.09462 117.82021
-27.217798 -30.382763 134.23955
32.559395 7.1654334 48.447105
-1.8320543 -33.459946 68.213394
4.1303711 -36.727406 99.496704
-1.0967145 38.600319 96.32373
-31.614346 5.7648487 37.555317
-39.688442 5.8689327 128.21222
-32.996731 -16.701433 81.511871
22.02507 -25.256477 50.019516
10.504177 30.891712 60.216148
-38.19664 11.46814 107.73598
-26.230593 12.241446 26.877213
-15.158516 34.222744 85.520386
3.9908073 30.379488 42.23954
21.634163 28.580669 71.139076
-5.7141204 -39.301445 106.26215
-22.773895 27.907578 90.968758
-13.021688 -37.198807 103.48098
1.8507755 -8.4506512 2
19.922058 31.546448 84.423698
41.166695 -8.8685284 127.96792
26.268269 -32.969894 128.35745
9.3808975 28.088871 32.900192
-27.72719 -15.529314 34.330009
5.2726693 30.389416 44.078346
-34.615124 3.6622152 80.042336
-9.9866247 -38.812851 127.80708
-15.144915 22.60708 11.151808
8.9231339 27.272768 24.597324
-12.990165 30.663937 48.134914
-26.881742 -14.747046 24.173512
37.697796 19.588526 131.37737
24.036289 -34.090282 124.36255
9.6460228 41.307617 130.7923
-30.769875 29.427275 132.17519
34.508064 -10.431469 91.304611
-28.634624 1.7258421 24.512173
-29.796728 -11.25507 34.960526
25.020306 -24.936378 84.67662
32.663582 -12.461171 63.165104
26.498886 -20.231754 48.470352
-34.540386 -19.028095 103.73022
34.566162 -0.73265088 77.847656
-12.152653 13.510837 2
-1.1818634 -28.622021 5.932436
5.7643161 30.96245 31.728836
-3.3550205 -30.046329 38.547737
-6.9743352 -38.142654 97.7323
22.165539 -21.815281 28.161076
33.493267 -14.870554 96.705734
28.794891 11.510714 45.599686
-35.936413 -11.466669 88.213188
-9.6576681 28.482437 37.119179
-5.0963936 27.497923 17.966614
-27.386463 15.778967 32.750477
24.37678 17.249949 35.155502
-27.430338 0.36368945 13.147751
28.499016 -18.175825 70.85537
-19.306969 -32.401352 106.42413
23.378294 -17.715973 12.122674
-25.592812 -28.760921 113.43714
-20.77099 -23.413445 29.962425
-26.85907 -4.3171806 11.033632
0.57196873 -31.376587 48.959549
28.519707 -28.350468 110.79015
28.360374 1.7783903 3.8241534
-5.0816655 17.802204 0
33.058716 -25.648201 125.51767
3.7712555 33.543949 52.18718
6.6299267 -39.28643 125.66402
22.200348 30.757524 90.127716
34.267651 18.952162 101.22578
3.5139022 29.462046 15.193344
-33.520355 0.10900545 50.071529
38.397697 0.21692279 112.59325
31.869225 -4.4187899 37.87571
-31.201305 12.461893 50.802784
38.649406 7.5827179 121.50545
-39.862141 8.5196772 133.95796
23.065056 24.506172 69.536621
32.168076 7.343997 45.303017
-26.682211 16.158899 47.220024
-12.92523 3.1424379 0
-1.0332621 29.095795 28.391697
-6.4423037 28.902737 14.630154
-31.686855 -17.229984 73.184525
13.454764 -37.548763 107.82898
-7.0291939 -31.895079 60.522774
29.18079 26.744736 123.28772
35.709129 13.670816 111.09836
-11.230193 28.995291 46.359177
34.510822 20.430939 109.81064
-16.646374 30.199703 58.789543
11.94157 26.120415 6.6047277
-6.6414886 -29.082748 34.864048
35.80722 2.4240851 89.79879
34.384956 23.198236 122.25504
-8.8040619 33.491787 78.38842
-34.71397 14.490469 105.50803
-28.169979 -13.53698 29.513872
24.272665 34.064178 125.39064
30.804495 10.715652 60.151245
-30.026915 2.7489758 19.568005
1.0679439 -33.58593 50.805714
-16.992538 21.23119 10.943864
-33.894253 -11.754974 71.429337
30.618938 -26.048861 110.66338
-29.39378 1.0756507 31.086084
-5.4388795 28.883997 30.885538
-14.023054 -17.44767 0
-28.138554 13.175333 46.140938
-2.918365 -34.907188 82.028633
10.01111 -38.320393 123.54376
33.9496 -1.2010438 54.195595
-16.476349 28.783409 46.895508
-0.84899342 -38.050514 91.271179
-6.6716304 -29.571127 21.011272
34.48666 17.630768 115.6118
35.257568 -13.409133 106.41538
-35.542053 -14.608456 94.612656
-4.3633499 27.914253 2.3462393
-40.493996 -5.5793638 116.7813
-7.3891392 -38.63483 121.07121
33.479607 7.046176 74.641777
23.678556 -34.613045 126.4174
4.5220556 -41.924976 128.51596
10.995485 -40.973125 130.79315
-10.989433 31.849724 69.916931
-0.14942932 -15.256966 0
-23.567633 -35.067127 129.26579
-4.2330794 -31.096748 48.931061
2.0566559 -40.234276 129.72433
-14.122097 -22.721655 6.9844489
38.308372 -15.337122 120.29275
-35.72654 -11.775165 87.247757
-5.0173216 31.048016 49.593269
-25.541752 19.460478 37.299751
13.248478 26.88386 36.136982
8.1174355 -34.81424 88.555016
-37.461525 -5.1289062 107.2497
11.982321 34.826653 80.122566
-15.021318 -21.630249 3.2033012
-2.6414111 39.829102 126.35738
31.747198 6.8483219 58.903713
-29.231192 3.5647893 13.151741
29.124981 3.3895314 12.032679
32.029106 -3.4133329 38.194252
-14.678312 39.462219 127.88915
-30.882559 15.928371 61.248936
-25.778837 13.905219 29.978853
-25.279215 -15.289936 14.029778
-20.643484 -30.188622 95.969872
-40.609245 3.2873847 133.79684
1.5087519 39.622818 123.92501
28.077045 4.4969254 3.9649343
-15.309273 -26.861307 26.496439
11.124788 -38.947121 131.66249
31.357391 -4.4136381 51.524399
23.976637 26.583538 89.019066
11.873739 36.300163 110.71634
40.625309 3.1230826 115.5959
5.4003901 -37.53846 108.29998
-26.623316 -22.43866 61.829823
19.620453 28.759933 61.828922
12.504433 -31.441553 52.985161
-33.452442 -14.638598 77.215363
25.462608 -32.789963 136
11.107845 -17.013382 2
-27.323456 -30.111992 114.8266
-1.5162988 40.420048 112.909
15.57944 31.755791 85.09671
19.647995 5.1368241 0
5.6333399 33.342762 52.781845
-21.16758 28.439829 67.630409
25.433918 17.308094 43.363014
7.2083197 36.008247 79.101791
-16.49897 -33.282097 82.946198
38.54723 3.3686955 115.28008
40.629585 4.5716972 116.85258
-20.580605 35.10873 133.42754
-19.189781 -26.266558 41.093937
9.3028812 35.673828 80.463028
12.472916 33.797359 72.79747
24.703341 30.726223 103.6435
-2.1117029 13.147805 0
29.734186 -16.449747 72.540436
-20.622631 -35.837093 121.04694
19.517353 22.418102 15.655006
-25.976017 29.338482 101.48643
-25.821316 13.342501 27.938332
4.7794785 40.274273 132.10808
2.6158075 -28.251429 21.681391
7.3081636 -2.9278386 2
-17.657797 -35.197536 121.46336
-7.0352068 35.896484 96.095894
-16.421822 27.172256 33.994934
-27.712357 -18.215084 46.842728
37.598473 16.356655 117.92682
-19.589725 -7.7920094 0
-25.755936 -18.962444 54.37188
26.061581 -23.827946 66.367981
13.280351 -26.302834 31.578457
28.76207 -9.4619179 20.703394
35.479939 3.9719574 88.106277
28.170273 -4.0199952 4.1827674
27.315495 -30.272049 115.84782
26.287718 -29.695671 105.7326
17.453606 -31.47261 72.493889
-14.385509 -22.90062 9.6022902
11.195777 -36.672153 93.850311
26.29274 -20.187382 46.744415
-29.158705 5.3789182 14.994667
-36.627243 -17.257309 113.26974
36.684162 14.558513 122.29397
-38.160614 0.64367974 92.242706
-18.681372 -35.191505 125.68683
19.83033 8.6091671 0
11.278854 -27.948614 37.688824
27.859852 11.333307 18.868998
-10.358036 37.453209 98.520859
-32.872883 6.7833204 68.743126
-11.042632 38.172363 124.742
-14.888769 -21.75635 3.4775047
-26.60042 10.581348 23.947729
-12.129808 28.665627 28.405483
6.1981807 33.159676 70.294586
27.036493 27.694725 97.06842
-9.8652725 34.268196 87.762344
1.0027392 -31.469364 31.604477
17.749161 -20.908487 13.052832
-28.133141 5.4307089 24.218065
25.826986 28.944658 116.16978
6.1988678 27.97728 6.0231714
-31.722773 -3.8228588 35.85157
2.2940168 37.224686 84.330803
-18.266602 31.298903 93.004906
11.356496 -31.874535 71.230347
35.156055 23.001011 127.05656
20.422575 -16.016012 0
28.552505 16.791222 46.519157
5.3210158 -11.706342 2
-4.5216217 36.023643 93.614174
5.6358948 42.438305 134.29262
7.4741473 -37.10479 107.56125
-15.248453 22.662601 12.092221
-5.9506068 -7.4044676 0
6.7640524 26.980209 16.614676
-6.5862923 -36.73428 84.52034
-27.067724 10.249125 8.6158142
9.6734009 29.431969 27.043381
-28.122585 31.308363 127.71508
-27.430363 24.84359 81.697594
33.189575 -2.1191399 65.911217
-0.28970921 -32.220547 56.530457
8.2431374 0.56356823 0
37.597069 -1.3126457 105.53152
24.893513 20.394636 37.950909
-15.474546 -35.827343 118.29282
37.423203 9.6342583 96.56913
28.253498 29.213531 132.9369
30.433397 24.201395 98.709625
-16.674786 4.1021891 0
-38.483181 -8.6232948 103.76588
-2.429697 38.056313 91.941284
-32.488316 -22.587088 104.93048
30.213099 -23.009842 90.527603
31.306046 9.4325848 60.887329
-7.3412924 -32.738804 50.363976
29.051517 8.6254416 39.196541
-35.176498 18.271782 123.84318
33.3162 -1.6710505 48.631229
-32.733833 -13.970202 68.858215
2.9366171 -38.930119 118.35674
-12.262126 3.7597404 0
23.002411 -23.538937 44.555679
-10.648659 -34.905979 77.024384
-24.581814 -24.514648 79.206619
-36.064476 -15.521673 120.43233
3.6885169 30.998371 29.189205
39.221542 3.0049407 102.85141
-35.320007 3.1233313 85.884827
-34.102909 11.958297 73.837769
-32.040848 -18.707279 82.559662
-1.3531052 29.901398 17.562946
30.822166 -14.109439 53.48772
38.103119 -14.508816 134.07933
-34.796844 -16.180683 112.37647
0.74511123 -32.309731 39.19083
30.761229 7.1819572 50.793682
39.028999 -3.3936958 119.65294
-15.602289 -30.675018 76.428711
5.3120356 2.7563195 2
12.963324 25.726263 25.608633
-3.9019935 27.979353 2.3448532
2.2893126 32.19614 57.041691
4.1306911 -32.336964 59.99844
29.860933 -23.866278 92.742874
-1.2026346 27.466101 0
2.3049026 34.154449 56.53006
-15.446921 -26.500614 24.28442
19.611975 -20.657797 4.4180017
-12.693447 27.101513 17.524477
16.41786 27.557796 55.216404
-19.393131 -29.875736 87.38372
-27.247765 18.739964 46.024063
-10.950593 -40.310234 124.90015
-28.852766 -1.9837737 26.636839
-25.452768 32.078419 117.44508
-4.3478756 -34.572643 80.36174
18.385082 27.787857 48.291992
-28.726524 10.518988 41.796783
26.993668 6.5807762 16.304695
16.555599 26.446033 29.038589
19.008675 -29.130764 79.762955
-27.017902 16.477133 33.109669
6.4045458 39.660423 128.63696
-34.385376 7.0088034 82.599014
-28.151804 -3.5999801 3.4549747
-3.1596785 -38.362564 113.44034
19.58737 24.581768 31.164867
34.337315 25.435532 133.64557
-32.91555 -22.998661 128.52341
8.0774994 18.888353 0
31.860735 -6.3041835 40.65192
-15.470051 29.355484 47.04895
35.958939 -1.4236364 72.484863
-18.224861 33.160488 107.51451
27.912514 -23.914085 97.691803
39.912251 12.989783 126.73895
10.753615 37.379517 117.06038
25.353878 -20.202055 40.084435
-14.779953 32.585995 70.578552
25.839491 -19.877529 59.967396
-17.76248 22.502941 24.346642
-3.7584639 -32.887131 64.560516
-31.863464 -3.9654999 55.516232
-35.015343 3.6811595 65.422165
-25.055592 -29.846924 117.76751
-29.06168 -6.8819246 35.215576
3.0200529 6.6899791 2
-12.597785 -31.815166 56.397961
-15.914907 28.417141 41.473217
-41.091873 -10.317519 130.33276
38.227173 13.725838 114.41812
-24.601025 -6.0942211 2
-31.98843 -14.3025 63.880249
5.6185427 38.771957 101.39304
-36.59404 -0.72173613 78.053635
19.691923 -32.742817 110.82279
37.670898 -6.2546721 110.6758
18.545589 24.475327 42.853394
-11.898184 39.704346 121.97572
-29.482666 23.574026 88.458405
-12.139294 -29.739212 55.625214
-13.265629 38.398094 114.48997
5.313458 -7.8864536 2
27.720333 16.227039 37.419128
-35.101532 -17.884983 103.38943
24.306461 9.8630247 2.2598872
18.873224 -35.760868 131.05099
-4.9970121 -29.450974 35.261524
27.695587 6.1633081 3.4421222
-5.9487472 32.167862 42.77454
-16.404902 -5.6279564 0
-39.77964 -1.6649703 107.13024
39.25481 -10.488715 114.5537
20.936914 -26.830042 54.755848
36.430946 -14.994411 121.62512
-31.866688 26.799622 123.70148
-20.011948 -34.879326 110.78076
21.91283 21.424204 42.262531
13.086589 27.649822 41.777596
-20.282093 13.638813 0
-2.5942862 37.098351 83.383545
-37.977596 9.4302063 119.21898
-15.376168 -27.965998 53.789822
-23.164959 -21.453161 32.43243
19.911703 -20.262241 21.990007
17.973209 22.128387 4.675488
-8.2806425 -40.057724 135.32555
-11.275348 29.142979 29.490582
26.731504 -9.4694939 3.3265605
12.64405 -36.750732 116.7831
28.655563 10.421097 40.877892
28.076649 24.966385 86.827652
-1.8866307 9.0771875 2
27.838274 21.659773 84.218399
-26.047537 3.754647 3.046989
12.2672 13.322367 2
11.126581 -28.256874 39.749199
25.772076 24.845665 89.008141
29.285244 20.258671 87.272888
-41.317291 6.7716122 125.79842
7.1635528 31.569145 57.94519
-29.162956 -25.390886 114.96562
1.8761165 -33.821968 71.56768
-28.14592 -17.937407 48.778946
9.2722321 -24.228529 0
27.64735 19.64933 71.940918
9.4082289 30.108685 32.189362
38.570202 11.220276 110.38622
-25.838131 -22.89448 59.192123
-8.6037998 25.219112 6.0480623
-35.178009 1.7001083 65.491699
-28.904999 19.320484 79.609856
-1.2021341 36.669224 97.096863
27.006519 -17.672758 57.051609
-9.1873312 -34.589203 70.634277
16.781073 -28.833694 66.904068
5.0764937 32.675491 64.211044
28.656136 -3.6102357 26.290474
-26.122066 -31.553982 117.5751
-18.752979 -25.656473 52.561531
4.2154436 16.745169 0
26.356365 -24.405552 90.105553
-30.767256 4.9708619 28.72788
2.5304079 -10.250947 0
32.348633 20.071115 91.302948
12.231583 -34.769035 80.38089
-29.154522 -11.188158 29.281647
-21.082323 24.099203 36.487942
34.897163 -9.0288839 91.268341
-42.354797 6.0751867 134.08592
-12.396807 -25.246815 19.421555
16.888853 -26.738094 32.874798
-5.7627254 -33.065155 68.722656
-31.409031 13.276197 73.615288
-31.824272 17.891714 95.427147
23.486073 -27.390223 91.524956
-38.418209 -8.9937925 103.94374
-4.7212892 39.742374 109.05233
32.657261 -16.772291 79.007301
-13.096916 -32.75621 84.276093
37.620144 19.891949 132.00349
33.864376 -5.1547108 56.745537
14.083328 -26.512627 18.335508
4.3008728 -28.728645 9.5343723
19.896456 -35.528461 133.6488
9.5590668 26.239361 0
-25.37476 -26.936338 99.963997
-33.37431 18.181263 90.751297
-37.483234 -11.787836 102.4625
-34.633274 -6.6163263 65.885117
12.66851 -23.004776 2.5553975
-31.365892 -2.1748986 49.502018
28.255239 -24.135866 83.112785
35.295826 21.900719 122.79801
-9.7657099 -32.026028 67.993546
9.365202 25.889009 14.039773
20.061798 29.73016 89.623978
15.373648 -36.838558 126.37344
30.504087 -29.877384 133.29625
1.2097554 40.826908 134.71774
-1.770185 -33.512348 50.410946
27.475178 27.221266 96.875496
-27.247631 27.321774 114.29687
-27.008648 19.856331 68.319939
12.418955 -28.355125 26.851784
-22.08201 -26.965984 62.206047
7.9076157 27.447508 5.1649566
-33.402458 -17.240599 105.25051
-1.1855181 38.435295 94.852722
35.236069 9.0835037 94.368134
3.8132811 36.935673 101.10444
-8.1733418 -38.402988 120.42583
21.370731 30.581253 84.423027
-33.438084 7.7653542 75.682549
-19.698902 -28.68401 79.873756
-15.265257 29.009193 43.40535
22.887161 17.634993 8.1191187
-16.91349 27.00034 35.057873
-41.34642 -3.8068523 122.62526
7.6595812 -32.866646 70.412338
-2.7788854 -37.758827 89.477631
-4.0967607 34.952785 65.272758
16.984053 -24.993225 38.410492
23.128901 29.991272 107.80885
6.8568821 -34.332512 63.575237
25.549751 -15.960805 19.276207
-19.092999 25.056074 50.030262
-16.989706 -38.522415 127.9203
6.8419356 29.447096 20.27981
22.653435 -18.091459 27.280237
33.317867 16.446053 101.32593
16.211725 36.181713 123.90706
-27.826851 -20.75621 60.949005
37.532974 -4.8366404 107.56499
28.733416 15.620949 42.718445
-31.193703 15.039339 78.417587
-12.106167 30.059347 39.960766
28.680231 -15.772669 61.204052
-31.556782 -22.890772 99.656418
-7.2642908 6.8654284 0
0.17604011 -39.974182 126.88634
19.363466 32.318161 105.97838
-30.641354 -19.333611 92.937035
4.6906009 34.849487 83.263786
41.060181 -12.320443 134.83687
-15.554463 -37.645176 133.69362
-24.894951 31.014397 106.75552
34.787357 -24.607658 132.48041
17.219212 -31.808472 92.323807
37.346272 10.367841 115.81093
-36.191368 9.8404808 104.48785
-20.442436 34.859451 130.84418
38.883137 -11.368567 131.73677
-24.235806 -24.715822 60.043518
-1.4835926 29.986116 36.600464
-25.384426 8.7363224 7.829915
30.759972 25.267345 107.09606
0.85247409 33.665043 51.490791
5.9920912 -30.515066 46.362701
9.276453 -1.6740942 2
23.48 -32.02874 124.50481
-36.765121 11.923584 114.88235
22.062534 -20.048744 16.488194
-15.359021 -15.736677 0
32.255123 -21.982731 118.35041
11.856538 38.71928 113.32836
-25.496725 -4.4689188 2
1.8480914 28.663233 24.826305
34.251785 14.48682 101.56431
-38.764153 17.737659 132.65001
11.291521 27.918026 37.475952
25.479843 -26.510494 97.828804
-16.213371 -25.538698 38.682327
-26.450302 -6.3368945 11.047519
-8.54881 33.585442 60.390266
39.06414 4.5497799 121.0117
-22.147188 -34.821861 120.33191
31.588827 -16.711155 70.208809
40.376431 -7.9771447 136
-37.044926 -1.6401035 82.356438
-7.9205608 -28.385078 13.349644
10.572435 -32.778248 58.433086
-9.9258299 -33.162334 78.291534
-29.580433 19.437346 67.08477
-17.070137 -38.369137 126.9475
-37.86829 13.376485 110.30345
-3.931118 -1.0739354 2
9.4415836 31.748152 64.71048
1.4010968 -4.2307816 0
-39.842762 -9.3439417 117.21338
-0.58872944 38.39344 94.306778
-28.305126 -20.277348 61.855431
-31.556793 1.8347269 51.034901
-20.81543 -30.333294 79.749115
-35.450794 -4.368175 69.988876
-15.902178 32.591038 93.240425
-5.6177516 28.860815 31.002464
16.006529 24.714724 31.370745
27.089096 10.901722 10.942406
-28.605747 -20.566498 65.606392
39.234543 -6.0196009 106.06203
-18.497978 -2.586935 2
25.517685 -22.99258 75.828857
29.268526 -13.809137 57.808968
23.615583 -19.665043 24.815548
7.375494 37.812115 95.440681
31.308029 26.585413 118.55901
-38.393021 7.0649471 118.38556
24.297516 17.954576 38.353317
30.151119 -29.328362 127.5337
-36.811138 4.8677511 101.06736
-2.873821 26.458754 5.7449389
-10.132405 -37.899471 120.08345
-11.263107 3.1364691 0
-14.738568 32.961006 91.797684
31.428604 -18.537552 77.030579
35.706913 12.005349 105.97504
37.025719 -0.28133255 81.904129
9.6686964 -40.507664 123.77187
16.226807 -23.40386 4.3727884
19.849615 -34.015324 121.50758
-25.048216 10.957227 12.299578
-31.924967 -7.8549781 44.246468
2.8385766 -31.318214 31.304852
-35.377895 -20.691284 117.75978
-0.88431013 38.955948 117.73282
-36.826984 17.219145 114.76701
-38.392326 1.2753172 112.71089
24.655794 -34.452286 130.27301
21.868925 30.791328 106.82749
1.7186186 -39.43969 104.11852
-18.601114 -34.47826 101.37625
30.199249 25.889517 125.09534
31.288979 -13.139879 72.081985
30.021343 -16.913368 76.856056
-16.709747 -28.092756 60.801369
22.051189 31.117771 91.981842
-36.062881 -13.418489 113.32401
-22.78956 35.361748 127.59189
9.0887556 33.952686 83.123421
24.461832 -15.751844 28.190807
-18.936893 34.8792 106.00037
23.164244 4.1156693 0
-31.464645 10.158379 64.219566
27.595095 26.419533 110.82512
14.957282 -33.745087 99.076767
36.331051 8.9606352 103.70306
-11.660929 -38.153091 126.14869
-13.215495 -33.104649 87.611145
26.253424 23.201351 63.825417
28.762705 9.3817444 20.474277
35.735733 16.642834 103.57805
-2.4248972 -34.971138 82.276909
-38.85833 6.3190241 121.3661
37.824696 -3.7659929 109.05446
30.312092 -16.488892 77.296608
-33.160442 7.038569 53.507885
16.068684 29.454163 50.402191
8.8711004 36.124088 83.418388
17.064667 21.424759 12.774158
-11.455288 30.930962 45.248131
-34.833427 11.695254 97.589417
-3.9195814 -39.785984 126.87263
36.18882 18.001713 130.92215
-26.402325 -16.466209 46.540588
-33.987083 -19.782755 121.00547
29.430227 -24.404858 92.843239
-34.702957 11.807611 78.491737
-32.471607 -24.377823 114.31385
12.119722 -36.845249 116.10178
12.267721 27.769548 21.448792
-31.402739 -25.969381 115.62122
25.604122 -19.404623 55.684238
34.925606 -23.324366 126.96609
21.701517 -21.967936 44.400146
27.326902 -13.783033 23.64048
-20.394938 28.071178 79.034485
23.701935 29.115194 104.84138
38.431282 -0.60943079 112.8978
29.831861 13.112017 41.642548
-28.149685 -26.929104 117.60706
37.916195 10.749387 103.5047
-40.178547 13.668696 130.99203
-36.897507 -0.60507816 80.783417
33.357365 -14.709007 94.981598
22.453434 18.248631 8.5276794
-25.261499 -28.25132 89.816803
4.3423519 36.653164 80.809196
29.085989 -28.416729 133.0994
-22.84444 29.299715 83.0177
-26.796164 19.960461 67.364426
-14.428099 29.58095 62.84573
8.6128693 28.676886 35.88781
-31.555719 -21.018963 108.15966
36.110336 -4.4888945 76.123352
33.375633 -9.1894493 60.010662
-21.90716 -28.169594 87.994743
35.519337 15.230345 96.600723
-16.641994 -26.40468 47.381611
26.140779 24.393267 88.61058
-27.022593 27.370323 94.91851
27.566826 32.411217 131.92781
24.340996 -11.156682 7.2181892
-25.439346 -15.88905 36.363831
18.949648 23.525211 38.31636
9.9059334 34.742012 73.685341
1.8086337 37.24025 84.245926
-11.006959 32.224396 73.185913
10.094662 -29.252235 44.97295
15.759523 37.446659 114.52139
33.834339 1.1458825 71.374771
-12.356819 27.314423 36.225277
21.577923 29.285013 94.248947
20.115005 -35.015244 112.28455
31.939724 21.735397 96.427483
-30.037146 19.072018 68.777382
37.29538 -12.951324 122.40796
12.980863 -31.886675 58.336205
27.137205 -7.9750443 20.849283
22.202507 34.257526 134.53944
-33.742203 -13.068363 92.502274
1.5581751 -34.913956 81.304787
-20.088106 33.992477 104.17708
14.447186 -35.491367 111.87888
26.263275 5.9800119 8.649828
42.376686 -3.9545116 136
21.128445 21.183466 17.442221
-13.194468 24.480129 16.570415
34.240597 -2.7510881 57.646759
